# .PCD v.7 - Point Cloud Data file format
VERSION .7
FIELDS x y z
SIZE 4 4 4
TYPE F F F
COUNT 1 1 1
WIDTH 957
HEIGHT 1
VIEWPOINT 0 0 0 1 0 0 0
POINTS 957
DATA ascii
104754.8899993896 193941.0600013733 31.2200012207
104754.7799987793 193940.7900009155 26.1000022888
104754.8000030518 193941.0999984741 25.9400024414
104754.8099975586 193941.3899993896 25.8199996948
104754.8200073242 193941.6599998474 25.6599998474
104754.8300018311 193941.9700012207 25.6300010681
104754.8399963379 193942.2700004578 25.5300025940
104754.8600006104 193942.5900001526 25.4599990845
104754.8699951172 193942.8899993896 25.4400024414
104754.8899993896 193943.2099990845 25.3800010681
104754.8999938965 193943.5000000000 25.3700027466
104754.9100036621 193943.7900009155 25.3100013733
104754.9299926758 193944.0800018311 25.2700004578
104754.9400024414 193944.4099998474 25.2099990845
104754.9600067139 193944.7200012207 25.1800003052
104755.1300048828 193945.6899986267 31.9300003052
104755.1399993896 193945.9900016785 31.8899993896
104755.1600036621 193946.2900009155 31.8300018311
104755.1699981689 193946.5699996948 31.7800025940
104755.1300048828 193946.4000015259 30.0100021362
104755.0399932861 193946.2700004578 25.4400024414
104755.0500030518 193946.5900001526 25.5499992371
104755.0700073242 193946.9300003052 25.6500015259
104755.0899963379 193947.2299995422 25.7800025940
104755.1100006104 193947.5699996948 25.8899993896
104755.1300048828 193947.8699989319 26.0000000000
104755.1399993896 193948.1899986267 26.1100006104
104755.1600036621 193948.4900016785 26.2400016785
104755.1799926758 193948.8300018311 26.3500022888
104755.1999969482 193949.1599998474 26.4799995422
104755.2100067139 193949.4700012207 26.5900001526
104755.2299957275 193949.7900009155 26.7099990845
104755.2500000000 193950.0999984741 26.7299995422
104755.2599945068 193950.3800010681 26.6500015259
104755.2700042725 193950.6699981689 26.5200004578
104755.2799987793 193950.9799995422 26.4200019836
104755.3000030518 193951.2900009155 26.2700004578
104755.3800048828 193951.8400001526 29.3100013733
104755.3099975586 193951.5800018311 26.2000007629
104755.3899993896 193952.1500015259 29.1000022888
104755.3999938965 193952.4199981689 28.9200019836
104755.4100036621 193952.7000007629 28.7000007629
104755.4199981689 193952.9799995422 28.5200004578
104755.4299926758 193953.2900009155 28.2900009155
104755.3699951172 193953.0699996948 25.6200027466
104755.3800048828 193953.3800010681 25.5400009155
104755.3999938965 193953.6899986267 25.5600013733
104755.4299926758 193954.0600013733 26.3899993896
104755.4600067139 193954.4199981689 27.1300010681
104755.4600067139 193954.6699981689 26.5499992371
104755.4600067139 193954.9300003052 25.9400024414
104755.4700012207 193955.1899986267 25.2700004578
104755.4600067139 193955.4700012207 24.5200004578
104755.4600067139 193955.7000007629 23.8299999237
104755.4600067139 193955.9799995422 23.0699996948
104755.4600067139 193956.2200012207 22.4099998474
104755.2299957275 193955.4700012207 12.0200004578
104755.2599945068 193955.8199996948 12.6700000763
104755.3000030518 193955.9599990845 14.6800003052
104755.2500000000 193956.0600013733 11.8199996948
104755.2700042725 193956.4000015259 11.7399997711
104754.7899932861 193934.5800018311 24.4500007629
104754.8300018311 193935.0200004578 25.3500022888
104754.8500061035 193935.3600006104 25.6700019836
104754.8800048828 193935.7599983215 26.3500022888
104754.8999938965 193936.0999984741 26.7600021362
104754.9100036621 193936.3600006104 26.3199996948
104754.9100036621 193936.5999984741 25.9099998474
104754.9199981689 193936.8800010681 25.4900016785
104754.9299926758 193937.1800003052 25.3600006104
104754.9499969482 193937.5099983215 25.5400009155
104754.9700012207 193937.8499984741 25.7299995422
104755.0000000000 193938.2500000000 26.5200004578
104755.0200042725 193938.5299987793 26.4900016785
104755.0299987793 193938.7999992371 26.2200012207
104755.0500030518 193939.1399993896 26.4200019836
104755.1600036621 193939.9399986267 30.5699996948
104755.1799926758 193940.2299995422 30.7000007629
104755.1999969482 193940.5800018311 30.8400001526
104755.2100067139 193940.8800010681 30.9500007629
104755.1199951172 193940.6800003052 26.3300018311
104755.1300048828 193940.9599990845 26.1900024414
104755.1399993896 193941.2700004578 26.0400009155
104755.1499938965 193941.5699996948 25.8800010681
104755.1699981689 193941.8800010681 25.8700027466
104755.1799926758 193942.1899986267 25.8100013733
104755.1900024414 193942.4799995422 25.7500000000
104755.2100067139 193942.7700004578 25.7099990845
104755.2200012207 193943.0699996948 25.6500015259
104755.2299957275 193943.3800010681 25.6300010681
104755.2500000000 193943.7099990845 25.5699996948
104755.2599945068 193943.9900016785 25.5000000000
104755.2799987793 193944.3100013733 25.4700012207
104755.2899932861 193944.5999984741 25.4400024414
104755.4499969482 193945.5299987793 31.6500015259
104755.3300018311 193945.0200004578 26.4500007629
104755.4700012207 193945.7999992371 31.6300010681
104755.4799957275 193946.1300010681 31.5800018311
104755.5000000000 193946.4300003052 31.5400009155
104755.3699951172 193946.1699981689 25.6399993896
104755.3899993896 193946.5000000000 25.7600021362
104755.4100036621 193946.8100013733 25.8800010681
104755.4199981689 193947.1100006104 25.9799995422
104755.4400024414 193947.4300003052 26.0699996948
104755.4600067139 193947.7500000000 26.1900024414
104755.4799957275 193948.0999984741 26.3100013733
104755.4900054932 193948.3899993896 26.4400024414
104755.5099945068 193948.7299995422 26.5600013733
104755.5299987793 193949.0400009155 26.6800003052
104755.5500030518 193949.3499984741 26.7600021362
104755.5599975586 193949.6300010681 26.6800003052
104755.5700073242 193949.9399986267 26.5499992371
104755.5800018311 193950.2500000000 26.4500007629
104755.6000061035 193950.5499992371 26.3400001526
104755.6100006104 193950.8499984741 26.2200012207
104755.6199951172 193951.1500015259 26.1300010681
104755.6300048828 193951.4199981689 26.0200004578
104755.6399993896 193951.7200012207 25.9099998474
104755.7299957275 193952.2799987793 28.7900009155
104755.7400054932 193952.5800018311 28.5900001526
104755.7500000000 193952.8600006104 28.4000015259
104755.7599945068 193953.1699981689 28.2000007629
104755.7700042725 193953.4500007629 28.2000007629
104755.7100067139 193953.2400016785 25.5100021362
104755.7299957275 193953.5499992371 25.5300025940
104755.7400054932 193953.8400001526 25.6800003052
104755.7799987793 193954.2400016785 26.6200027466
104755.8000030518 193954.5800018311 26.8700027466
104755.8000030518 193954.8300018311 26.1800003052
104755.8000030518 193955.0900001526 25.4700012207
104755.5000000000 193954.0900001526 12.2299995422
104755.5099945068 193954.3899993896 12.1400003433
104755.8000030518 193955.3400001526 24.7600021362
104755.5299987793 193954.6800003052 12.0500001907
104755.5399932861 193954.9900016785 11.9099998474
104755.5500030518 193955.3100013733 11.8000001907
104755.5700073242 193955.6399993896 11.7600002289
104755.5800018311 193955.9300003052 11.7500000000
104755.6000061035 193956.2700004578 11.7299995422
104755.1399993896 193934.9199981689 25.7200012207
104755.1799926758 193935.3100013733 26.5699996948
104755.1999969482 193935.6599998474 26.8600006104
104755.2100067139 193935.9300003052 26.4799995422
104755.2100067139 193936.2000007629 26.0100021362
104755.2200012207 193936.4500007629 25.6000022888
104755.2200012207 193936.7200012207 25.1900024414
104755.2400054932 193937.0099983215 25.1100006104
104755.2500000000 193937.3300018311 25.2700004578
104755.2700042725 193937.6500015259 25.4599990845
104755.3099975586 193938.0600013733 26.2099990845
104755.3300018311 193938.4300003052 26.6000022888
104755.3300018311 193938.6500015259 25.9700012207
104755.3500061035 193939.0000000000 26.1300010681
104755.4700012207 193939.7400016785 30.2299995422
104755.4799957275 193940.0699996948 30.3899993896
104755.5000000000 193940.3699989319 30.5000000000
104755.5200042725 193940.7099990845 30.6500015259
104755.4400024414 193940.5699996948 26.5699996948
104755.4499969482 193940.8699989319 26.4400024414
104755.4600067139 193941.1699981689 26.2700004578
104755.4700012207 193941.4599990845 26.1500015259
104755.4900054932 193941.7500000000 26.1200027466
104755.5000000000 193942.0400009155 26.0400009155
104755.5099945068 193942.3499984741 26.0100021362
104755.5299987793 193942.6800003052 25.9400024414
104755.5399932861 193942.9599990845 25.9000015259
104755.5500030518 193943.2900009155 25.8800010681
104755.5700073242 193943.5800018311 25.8199996948
104755.5800018311 193943.8800010681 25.7600021362
104755.5899963379 193944.1599998474 25.7099990845
104755.6100006104 193944.4900016785 25.6700019836
104755.6199951172 193944.7900009155 25.6200027466
104755.7700042725 193945.6699981689 31.4000015259
104755.6399993896 193945.0999984741 25.6200027466
104755.7899932861 193945.9799995422 31.3500022888
104755.8000030518 193946.2700004578 31.3100013733
104755.8200073242 193946.5499992371 31.2500000000
104755.6999969482 193946.3499984741 25.9099998474
104755.7200012207 193946.6699981689 26.0100021362
104755.7400054932 193947.0200004578 26.1300010681
104755.7599945068 193947.3100013733 26.2500000000
104755.7799987793 193947.6500015259 26.3400001526
104755.7899932861 193947.9500007629 26.4700012207
104755.8099975586 193948.2700004578 26.5800018311
104755.8300018311 193948.5699996948 26.7099990845
104755.8399963379 193948.8899993896 26.7500000000
104755.8600006104 193949.2000007629 26.6300010681
104755.8699951172 193949.5000000000 26.6100006104
104755.8899993896 193949.8300018311 26.7800025940
104755.8999938965 193950.1100006104 26.5100021362
104755.8999938965 193950.3699989319 26.2400016785
104755.9199981689 193950.6699981689 26.0800018311
104755.9299926758 193950.9799995422 25.9799995422
104755.9400024414 193951.2999992371 25.8700027466
104755.9600067139 193951.5699996948 25.7600021362
104755.9700012207 193951.8899993896 25.6500015259
104755.9799957275 193952.1699981689 25.5300025940
104756.0500030518 193952.4199981689 28.4900016785
104756.0599975586 193952.7099990845 28.2800025940
104756.0700073242 193952.9900016785 28.2200012207
104756.0800018311 193953.3100013733 28.2099990845
104756.1000061035 193953.6199989319 28.2000007629
104756.1100006104 193953.9300003052 28.1800003052
104756.0500030518 193953.7200012207 25.5300025940
104756.0700073242 193954.0400009155 25.6700019836
104755.9100036621 193953.7400016785 17.9599990845
104756.1000061035 193954.4000015259 26.4200019836
104755.8300018311 193953.7200012207 13.7200002670
104755.8000030518 193953.5999984741 12.2200002670
104755.8099975586 193953.9000015259 11.9799995422
104755.8200073242 193954.2099990845 11.8299999237
104755.8300018311 193954.5499992371 11.8000001907
104755.8500061035 193954.8400001526 11.7899999619
104755.8600006104 193955.1800003052 11.7600002289
104755.8800048828 193955.4799995422 11.7600002289
104755.8899993896 193955.7900009155 11.7299995422
104755.5099945068 193935.2500000000 27.0699996948
104755.5200042725 193935.5200004578 26.8800010681
104755.5299987793 193935.7999992371 26.4300003052
104755.5200042725 193936.0099983215 25.7299995422
104755.5299987793 193936.2599983215 25.3100013733
104755.5299987793 193936.5099983215 24.8800010681
104755.5399932861 193936.8199996948 24.7099990845
104755.5700073242 193937.1699981689 25.0200004578
104755.5899963379 193937.5000000000 25.1900024414
104755.6199951172 193937.9000015259 26.0100021362
104755.6499938965 193938.2999992371 26.7400016785
104755.6499938965 193938.5200004578 26.0900001526
104755.6600036621 193938.7900009155 25.8600006104
104755.7799987793 193939.5600013733 29.9200019836
104755.8000030518 193939.9000015259 30.0600013733
104755.8099975586 193940.2099990845 30.2200012207
104755.8300018311 193940.5600013733 30.3500022888
104755.7400054932 193940.1500015259 26.6399993896
104755.7599945068 193940.4500007629 26.7500000000
104755.7700042725 193940.7400016785 26.6599998474
104755.7799987793 193941.0200004578 26.5100021362
104755.8000030518 193941.3400001526 26.4200019836
104755.8099975586 193941.6500015259 26.3700027466
104755.8200073242 193941.9399986267 26.3199996948
104755.8399963379 193942.2599983215 26.2700004578
104755.8500061035 193942.5600013733 26.2200012207
104755.8699951172 193942.8499984741 26.1700019836
104755.8800048828 193943.1500015259 26.1500015259
104755.8899993896 193943.4500007629 26.1000022888
104755.9100036621 193943.7799987793 26.0400009155
104755.9199981689 193944.0699996948 25.9900016785
104755.9400024414 193944.4000015259 25.9700012207
104755.9499969482 193944.6800003052 25.8899993896
104755.9600067139 193944.9700012207 25.8600006104
104756.1000061035 193945.7799987793 31.0699996948
104756.1199951172 193946.0999984741 31.0300025940
104756.1300048828 193946.4099998474 30.9900016785
104756.1100006104 193946.5499992371 29.3899993896
104756.1399993896 193946.7000007629 30.9200019836
104756.0299987793 193946.2400016785 26.0699996948
104756.0500030518 193946.5600013733 26.1800003052
104756.0599975586 193946.8800010681 26.3100013733
104756.0800018311 193947.1800003052 26.4000015259
104756.1000061035 193947.4900016785 26.5100021362
104756.1199951172 193947.8199996948 26.6800003052
104756.1300048828 193948.1599998474 26.7400016785
104756.1499938965 193948.4500007629 26.7000007629
104756.1600036621 193948.7599983215 26.5300025940
104756.1799926758 193949.0499992371 26.6700019836
104756.1799926758 193949.3400001526 26.4200019836
104756.1900024414 193949.6199989319 26.2400016785
104756.2100067139 193949.9399986267 26.1500015259
104756.2299957275 193950.2900009155 26.5699996948
104756.2500000000 193950.5999984741 26.7800025940
104756.2599945068 193950.9000015259 26.6000022888
104756.2700042725 193951.1800003052 26.2000007629
104756.2799987793 193951.4399986267 25.9000015259
104756.2899932861 193951.7200012207 25.6100006104
104756.3000030518 193952.0299987793 25.5900001526
104756.3200073242 193952.3600006104 25.6000022888
104756.3899993896 193952.8699989319 28.2000007629
104756.4100036621 193953.1899986267 28.2000007629
104756.4199981689 193953.4799995422 28.2000007629
104756.4299926758 193953.7799987793 28.2099990845
104756.4499969482 193954.0699996948 28.2000007629
104756.3999938965 193954.2000007629 25.5400009155
104756.3800048828 193954.0999984741 24.3800010681
104756.3399963379 193954.2400016785 22.0799999237
104756.2500000000 193954.1899986267 17.4599990845
104756.2299957275 193954.0999984741 16.3700008392
104756.1499938965 193954.1100006104 12.1599998474
104756.1499938965 193954.4000015259 11.8100004196
104756.1699981689 193954.6899986267 11.7700004578
104756.1799926758 193955.0000000000 11.7700004578
104756.1999969482 193955.3300018311 11.7500000000
104755.8399963379 193935.3100013733 26.3199996948
104755.8399963379 193935.5699996948 26.0600013733
104755.8500061035 193935.8499984741 25.6300010681
104755.8500061035 193936.0999984741 25.1100006104
104755.8600006104 193936.3600006104 24.6399993896
104755.8699951172 193936.6699981689 24.6300010681
104755.8899993896 193936.9900016785 24.7000007629
104755.9100036621 193937.2999992371 24.8800010681
104755.9400024414 193937.6899986267 25.6000022888
104755.9799957275 193938.1399993896 26.7999992371
104755.9799957275 193938.3899993896 26.1000022888
104755.9900054932 193938.6399993896 25.7000007629
104756.1000061035 193939.4000015259 29.6000022888
104756.1199951172 193939.7099990845 29.7600021362
104756.1399993896 193940.0299987793 29.9000015259
104756.1499938965 193940.3300018311 30.0000000000
104756.0599975586 193939.9300003052 26.3500022888
104756.0899963379 193940.2999992371 26.6900024414
104756.1000061035 193940.6100006104 26.6800003052
104756.1199951172 193940.9199981689 26.7299995422
104756.1300048828 193941.2299995422 26.6900024414
104756.1499938965 193941.5400009155 26.6399993896
104756.1600036621 193941.8199996948 26.5800018311
104756.1699981689 193942.1100006104 26.5300025940
104756.1900024414 193942.4199981689 26.4700012207
104756.1999969482 193942.7500000000 26.4400024414
104756.2100067139 193943.0400009155 26.4000015259
104756.2299957275 193943.3600006104 26.3300018311
104756.2400054932 193943.6500015259 26.3199996948
104756.2599945068 193943.9500007629 26.2400016785
104756.2700042725 193944.2400016785 26.2099990845
104756.2799987793 193944.5600013733 26.1599998474
104756.3000030518 193944.8699989319 26.1000022888
104756.3099975586 193945.1699981689 26.0800018311
104756.4400024414 193945.9399986267 30.7900009155
104756.4499969482 193946.2400016785 30.7400016785
104756.4700012207 193946.5200004578 30.7000007629
104756.3800048828 193946.4099998474 26.3500022888
104756.3999938965 193946.7400016785 26.4599990845
104756.4100036621 193947.0800018311 26.6200027466
104756.4299926758 193947.3800010681 26.7099990845
104756.4499969482 193947.7099990845 26.7200012207
104756.4600067139 193947.9900016785 26.6300010681
104756.4799957275 193948.3100013733 26.7999992371
104756.4799957275 193948.5600013733 26.4099998474
104756.5000000000 193948.8800010681 26.3100013733
104756.5200042725 193949.2200012207 26.6700019836
104756.5299987793 193949.5099983215 26.4599990845
104756.5399932861 193949.7900009155 25.9700012207
104756.5500030518 193950.0800018311 25.8500022888
104756.5599975586 193950.3699989319 25.8199996948
104756.5800018311 193950.7000007629 26.2099990845
104756.6100006104 193951.0499992371 26.6300010681
104756.6300048828 193951.4000015259 26.7900009155
104756.6399993896 193951.6699981689 26.6100006104
104756.6499938965 193951.9599990845 26.2200012207
104756.6499938965 193952.2299995422 25.9300003052
104756.6699981689 193952.5299987793 25.8300018311
104756.7299957275 193953.0099983215 28.2000007629
104756.6799926758 193952.8100013733 25.7299995422
104756.7500000000 193953.3300018311 28.2000007629
104756.7700042725 193953.6399993896 28.2000007629
104756.7799987793 193953.9500007629 28.2000007629
104756.8000030518 193954.2599983215 28.2000007629
104756.8099975586 193954.5600013733 28.1700019836
104756.7200012207 193954.2700004578 24.4599990845
104756.6900024414 193954.3899993896 22.1800003052
104756.7299957275 193954.5499992371 24.2900009155
104756.6999969482 193954.6800003052 22.0200004578
104756.6199951172 193954.4300003052 18.7000007629
104756.5200042725 193954.3699989319 13.5799999237
104756.5000000000 193954.5699996948 11.8000001907
104756.5099945068 193954.8699989319 11.7700004578
104756.5299987793 193955.2000007629 11.7600002289
104756.1699981689 193935.3800010681 25.3899993896
104756.1799926758 193935.6800003052 25.1100006104
104756.1900024414 193935.9399986267 24.8100013733
104756.2200012207 193936.3400001526 25.6500015259
104756.1999969482 193936.2099990845 24.5400009155
104756.2400054932 193936.6500015259 25.7999992371
104756.2299957275 193936.8499984741 24.6700019836
104756.2500000000 193937.1699981689 24.6700019836
104756.2799987793 193937.5699996948 25.5000000000
104756.3300018311 193938.0299987793 26.8100013733
104756.3300018311 193938.2700004578 26.2299995422
104756.4100036621 193938.8899993896 29.1200027466
104756.3300018311 193938.5000000000 25.6900024414
104756.4299926758 193939.2099990845 29.2700004578
104756.4499969482 193939.5400009155 29.4200019836
104756.4700012207 193939.8800010681 29.5699996948
104756.4799957275 193940.1800003052 29.6500015259
104756.3999938965 193939.8100013733 26.2099990845
104756.4299926758 193940.1899986267 26.6500015259
104756.4400024414 193940.4700012207 26.6599998474
104756.4600067139 193940.7799987793 26.6900024414
104756.4700012207 193941.0699996948 26.6700019836
104756.4900054932 193941.4000015259 26.6700019836
104756.5000000000 193941.7200012207 26.7000007629
104756.5200042725 193942.0299987793 26.7400016785
104756.5299987793 193942.3400001526 26.7600021362
104756.5500030518 193942.6500015259 26.7200012207
104756.5599975586 193942.9399986267 26.6800003052
104756.5800018311 193943.2299995422 26.6399993896
104756.5899963379 193943.5400009155 26.5699996948
104756.6100006104 193943.8600006104 26.5100021362
104756.6199951172 193944.1500015259 26.4500007629
104756.6300048828 193944.4799995422 26.4400024414
104756.6499938965 193944.7599983215 26.3899993896
104756.6600036621 193945.0499992371 26.2999992371
104756.7700042725 193945.7599983215 30.5100021362
104756.6699981689 193945.3499984741 26.3300018311
104756.7899932861 193946.0800018311 30.4500007629
104756.8000030518 193946.3899993896 30.4099998474
104756.8099975586 193946.6800003052 30.3600006104
104756.7400054932 193946.6399993896 26.6900024414
104756.7599945068 193946.9500007629 26.7500000000
104756.7700042725 193947.2500000000 26.6700019836
104756.7799987793 193947.5200004578 26.5600013733
104756.8000030518 193947.8400001526 26.4400024414
104756.8200073242 193948.1800003052 26.7400016785
104756.8200073242 193948.4399986267 26.2700004578
104756.8300018311 193948.7500000000 26.0900001526
104756.8500061035 193949.0400009155 26.0400009155
104756.8800048828 193949.3800010681 26.6599998474
104756.8899993896 193949.6800003052 26.4900016785
104756.8899993896 193949.9300003052 25.7600021362
104756.8999938965 193950.2400016785 25.5699996948
104756.9100036621 193950.5099983215 25.4799995422
104756.9299926758 193950.8499984741 25.4400024414
104756.9499969482 193951.1699981689 25.7700004578
104756.9700012207 193951.5000000000 26.1200027466
104756.9900054932 193951.8199996948 26.4900016785
104757.0099945068 193952.1599998474 26.7700004578
104757.0399932861 193952.5000000000 27.0100021362
104757.0399932861 193952.7900009155 26.7299995422
104757.0500030518 193953.0499992371 26.2200012207
104756.7500000000 193952.2900009155 12.7500000000
104757.1100006104 193953.5200004578 28.2000007629
104757.1199951172 193953.8100013733 28.2000007629
104757.1399993896 193954.1100006104 28.2099990845
104757.1499938965 193954.4300003052 28.2000007629
104757.1699981689 193954.7400016785 28.1900024414
104757.0899963379 193954.7400016785 24.3800010681
104757.0599975586 193954.9000015259 22.0799999237
104756.9499969482 193954.7700004578 16.4799995422
104756.8600006104 193954.7700004578 12.1800003052
104756.8699951172 193955.0200004578 11.7700004578
104756.8800048828 193955.3699989319 11.7299995422
104756.8999938965 193955.6899986267 11.7299995422
104756.5200042725 193935.7000007629 24.2700004578
104756.6199951172 193936.4599990845 27.9700012207
104756.5700073242 193936.2000007629 25.8100013733
104756.5299987793 193936.0000000000 24.0599994659
104756.6100006104 193936.6500015259 27.0499992371
104756.6000061035 193936.8300018311 25.8400001526
104756.5800018311 193936.9900016785 24.5800018311
104756.6100006104 193937.3600006104 25.2200012207
104756.6699981689 193937.8300018311 26.6900024414
104756.6699981689 193938.1199989319 26.4099998474
104756.7500000000 193938.7099990845 28.8100013733
104756.6699981689 193938.3600006104 25.7000007629
104756.7700042725 193939.0200004578 28.9599990845
104756.7899932861 193939.3699989319 29.1100006104
104756.8000030518 193939.6599998474 29.2400016785
104756.7500000000 193939.6699981689 26.5100021362
104756.7700042725 193939.9799995422 26.6599998474
104756.7899932861 193940.3100013733 26.6700019836
104756.8000030518 193940.6300010681 26.6599998474
104756.8200073242 193940.9300003052 26.6700019836
104756.8300018311 193941.2400016785 26.6700019836
104756.8500061035 193941.5600013733 26.6900024414
104756.8600006104 193941.8400001526 26.6700019836
104756.8800048828 193942.1399993896 26.6900024414
104756.8899993896 193942.4599990845 26.6900024414
104756.9100036621 193942.7900009155 26.6800003052
104756.9199981689 193943.0800018311 26.6900024414
104756.9400024414 193943.4099998474 26.7099990845
104756.9499969482 193943.7000007629 26.7500000000
104756.9700012207 193944.0099983215 26.7400016785
104756.9799957275 193944.2999992371 26.7099990845
104756.9900054932 193944.6199989319 26.6700019836
104757.0099945068 193944.9199981689 26.5900001526
104757.0200042725 193945.2299995422 26.5600013733
104757.1199951172 193945.8899993896 30.1800003052
104757.1399993896 193946.2000007629 30.1300010681
104757.1499938965 193946.4799995422 30.0699996948
104757.1600036621 193946.7700004578 30.0300025940
104757.1000061035 193946.7599983215 26.6100006104
104757.1100006104 193947.0900001526 26.4900016785
104757.1199951172 193947.3600006104 26.3899993896
104757.1399993896 193947.6800003052 26.2700004578
104757.1499938965 193947.9700012207 26.2900009155
104757.1699981689 193948.3100013733 26.6000022888
104757.1699981689 193948.5400009155 25.9500007629
104757.1900024414 193948.8499984741 25.8400001526
104757.1999969482 193949.1599998474 25.7500000000
104757.2299957275 193949.5400009155 26.6300010681
104757.2400054932 193949.8400001526 26.4400024414
104757.2400054932 193950.0900001526 25.7500000000
104757.2500000000 193950.3300018311 25.3199996948
104757.2599945068 193950.6300010681 25.2099990845
104757.2700042725 193950.9399986267 25.0900001526
104757.2899932861 193951.2700004578 25.0699996948
104757.3099975586 193951.5800018311 25.4000015259
104757.3300018311 193951.9399986267 25.7999992371
104757.3699951172 193952.2900009155 26.5100021362
104757.3899993896 193952.6300010681 26.8800010681
104757.3999938965 193952.9199981689 26.9099998474
104757.1000061035 193952.1100006104 12.8000001907
104757.1000061035 193952.4000015259 12.4099998474
104757.4600067139 193953.6500015259 28.0900001526
104757.4799957275 193953.9599990845 28.1800003052
104757.4900054932 193954.2799987793 28.1900024414
104757.5099945068 193954.5800018311 28.2099990845
104757.5200042725 193954.8600006104 28.2099990845
104757.4499969482 193954.8899993896 24.5600013733
104757.4299926758 193955.3499984741 22.0100002289
104757.3600006104 193955.1100006104 18.8700008392
104757.4600067139 193955.1899986267 24.3300018311
104757.5399932861 193955.1599998474 28.1900024414
104757.2599945068 193955.0499992371 14.1599998474
104757.2299957275 193955.2099990845 11.7700004578
104757.2400054932 193955.5099983215 11.7299995422
104757.2599945068 193955.8300018311 11.7100000381
104756.9400024414 193936.3199996948 25.5900001526
104756.8699951172 193936.0200004578 22.9899997711
104756.9499969482 193936.6199989319 25.6300010681
104756.9100036621 193936.4199981689 23.8700008392
104756.8800048828 193936.2799987793 22.7299995422
104756.9299926758 193936.7900009155 24.1499996185
104756.9900054932 193937.2900009155 25.7999992371
104757.0299987793 193937.7299995422 27.0300025940
104757.0399932861 193938.0200004578 26.7700004578
104757.0399932861 193938.2700004578 26.2099990845
104757.1000061035 193938.5200004578 28.4599990845
104757.1100006104 193938.8300018311 28.6000022888
104757.1300048828 193939.1500015259 28.7600021362
104757.1499938965 193939.4700012207 28.9000015259
104757.1100006104 193939.5600013733 26.7299995422
104757.1300048828 193939.8499984741 26.6500015259
104757.1399993896 193940.1800003052 26.6700019836
104757.1600036621 193940.4700012207 26.6700019836
104757.1699981689 193940.7700004578 26.6800003052
104757.1900024414 193941.0600013733 26.6599998474
104757.1999969482 193941.4000015259 26.6700019836
104757.2200012207 193941.7099990845 26.6700019836
104757.2299957275 193942.0099983215 26.6800003052
104757.2500000000 193942.3300018311 26.6800003052
104757.2599945068 193942.6399993896 26.6900024414
104757.2799987793 193942.9300003052 26.6900024414
104757.2899932861 193943.2400016785 26.7600021362
104757.3099975586 193943.5400009155 26.6900024414
104757.3200073242 193943.8600006104 26.6900024414
104757.3399963379 193944.1699981689 26.6800003052
104757.3500061035 193944.4799995422 26.6800003052
104757.3699951172 193944.7900009155 26.6900024414
104757.3800048828 193945.0800018311 26.7099990845
104757.3999938965 193945.3899993896 26.7600021362
104757.4900054932 193946.0099983215 29.8300018311
104757.5000000000 193946.3199996948 29.7999992371
104757.5099945068 193946.6100006104 29.7500000000
104757.5299987793 193946.9199981689 29.5600013733
104757.4499969482 193946.6199989319 26.4200019836
104757.4600067139 193946.9000015259 26.3500022888
104757.4799957275 193947.2000007629 26.2500000000
104757.4900054932 193947.4700012207 26.1100006104
104757.5000000000 193947.7999992371 26.0600013733
104757.5299987793 193948.1699981689 26.6900024414
104757.5299987793 193948.4099998474 25.9099998474
104757.5399932861 193948.7000007629 25.6599998474
104757.5500030518 193948.9900016785 25.5499992371
104757.5700073242 193949.2900009155 25.6200027466
104757.6100006104 193949.6899986267 26.6700019836
104757.6199951172 193949.9799995422 26.4799995422
104757.6199951172 193950.2400016785 25.6900024414
104757.6100006104 193950.4799995422 25.0900001526
104757.6300048828 193950.7900009155 24.9099998474
104757.6399993896 193951.0800018311 24.7200012207
104757.6499938965 193951.3699989319 24.7099990845
104757.6600036621 193951.6599998474 24.7099990845
104757.6900024414 193952.0400009155 25.2800025940
104757.7200012207 193952.4000015259 25.7999992371
104757.7400054932 193952.7099990845 25.9000015259
104757.4499969482 193951.9700012207 12.7700004578
104757.4600067139 193952.2500000000 12.3900003433
104757.4700012207 193952.5200004578 12.0500001907
104757.8500061035 193954.0999984741 28.1800003052
104757.4199981689 193952.6300010681 9.3199996948
104757.8600006104 193954.4199981689 28.1900024414
104757.8800048828 193954.7400016785 28.2099990845
104757.8899993896 193955.0299987793 28.2000007629
104757.8600006104 193955.2000007629 26.1200027466
104757.8399963379 193955.3600006104 24.3500022888
104757.8000030518 193955.4900016785 22.0699996948
104757.7400054932 193955.2999992371 19.4099998474
104757.6699981689 193955.3100013733 15.7799997330
104757.6000061035 193955.3600006104 11.7500000000
104757.6100006104 193955.6899986267 11.7200002670
104757.6300048828 193955.9900016785 11.7200002670
104757.6399993896 193956.3100013733 11.6999998093
104757.3300018311 193937.0400009155 24.9500007629
104757.3800048828 193937.4900016785 26.4000015259
104757.4100036621 193937.8499984741 26.8300018311
104757.4499969482 193938.3100013733 28.1100006104
104757.4100036621 193938.1100006104 26.3500022888
104757.4700012207 193938.6500015259 28.2400016785
104757.4900054932 193938.9599990845 28.3800010681
104757.5099945068 193939.2999992371 28.5200004578
104757.4799957275 193939.3899993896 26.6700019836
104757.4900054932 193939.7000007629 26.6700019836
104757.5099945068 193939.9799995422 26.6700019836
104757.5200042725 193940.3100013733 26.6599998474
104757.5399932861 193940.6300010681 26.6700019836
104757.5500030518 193940.9300003052 26.6700019836
104757.5700073242 193941.2500000000 26.6800003052
104757.5800018311 193941.5499992371 26.6700019836
104757.6000061035 193941.8499984741 26.6900024414
104757.6100006104 193942.1500015259 26.6800003052
104757.6300048828 193942.4700012207 26.7000007629
104757.6399993896 193942.7999992371 26.6900024414
104757.6600036621 193943.0900001526 26.7700004578
104757.6699981689 193943.4099998474 26.6900024414
104757.6900024414 193943.7099990845 26.6800003052
104757.6999969482 193944.0200004578 26.6900024414
104757.7200012207 193944.2999992371 26.6800003052
104757.7299957275 193944.6300010681 26.6800003052
104757.7500000000 193944.9399986267 26.6700019836
104757.7599945068 193945.2500000000 26.6700019836
104757.8500061035 193945.8499984741 29.5499992371
104757.7799987793 193945.5699996948 26.6700019836
104757.8600006104 193946.1399993896 29.4700012207
104757.8699951172 193946.4199981689 29.4400024414
104757.8899993896 193946.7200012207 29.3800010681
104757.8300018311 193946.7299995422 26.1300010681
104757.8399963379 193947.0400009155 26.0300025940
104757.8500061035 193947.3199996948 25.8899993896
104757.8600006104 193947.6399993896 25.7900009155
104757.8999938965 193948.0200004578 26.7999992371
104757.8999938965 193948.2799987793 26.1900024414
104757.8999938965 193948.5000000000 25.5000000000
104757.9100036621 193948.8199996948 25.3700027466
104757.9299926758 193949.1199989319 25.2600021362
104757.9400024414 193949.4500007629 25.4700012207
104757.9900054932 193949.8600006104 26.6100006104
104758.0000000000 193950.1599998474 26.5600013733
104758.0000000000 193950.3899993896 25.8800010681
104758.0000000000 193950.6399993896 25.2099990845
104758.0000000000 193950.9099998474 24.7200012207
104758.0200042725 193951.2299995422 24.6300010681
104758.0500030518 193951.6100006104 25.6700019836
104758.0299987793 193951.5200004578 24.6300010681
104758.0700073242 193951.9399986267 25.6599998474
104758.0399932861 193951.8499984741 24.5600013733
104758.0599975586 193952.1399993896 24.5499992371
104758.0800018311 193952.4599990845 24.7700004578
104757.8200073242 193951.7900009155 12.8100004196
104757.8300018311 193952.0800018311 12.3900003433
104757.8399963379 193952.3800010681 12.0200004578
104757.7899932861 193952.4799995422 9.2500000000
104757.8000030518 193952.7799987793 8.9899997711
104758.2500000000 193954.5800018311 28.2000007629
104757.8200073242 193953.1300010681 9.4099998474
104758.2500000000 193954.8300018311 27.5699996948
104758.1900024414 193954.9000015259 24.5600013733
104758.1999969482 193955.2000007629 24.2700004578
104758.1499938965 193955.0400009155 22.1399993896
104758.0800018311 193955.0499992371 18.0000000000
104758.0399932861 193954.9300003052 16.4200000763
104757.9799957275 193954.9700012207 12.9099998474
104757.9600067139 193954.8899993896 11.9099998474
104757.9700012207 193955.2200012207 11.7500000000
104757.9799957275 193955.5200004578 11.7200002670
104758.0000000000 193955.8300018311 11.7100000381
104757.8000030518 193938.2000007629 28.1100006104
104757.8200073242 193938.4900016785 28.1100006104
104757.8300018311 193938.7999992371 28.1200027466
104757.8500061035 193939.0900001526 28.1800003052
104757.8300018311 193939.2500000000 26.6700019836
104757.8399963379 193939.5699996948 26.6700019836
104757.8600006104 193939.8699989319 26.6599998474
104757.8699951172 193940.1899986267 26.6700019836
104757.8899993896 193940.4900016785 26.6599998474
104757.8999938965 193940.7799987793 26.6700019836
104757.9100036621 193941.0900001526 26.6500015259
104757.9299926758 193941.4099998474 26.6800003052
104757.9499969482 193941.7299995422 26.6800003052
104757.9600067139 193942.0200004578 26.7000007629
104757.9799957275 193942.3499984741 26.6800003052
104757.9900054932 193942.6500015259 26.6800003052
104758.0099945068 193942.9500007629 26.7099990845
104758.0200042725 193943.2400016785 26.6900024414
104758.0399932861 193943.5600013733 26.6900024414
104758.0500030518 193943.8800010681 26.6700019836
104758.0700073242 193944.1899986267 26.6700019836
104758.0800018311 193944.5000000000 26.6800003052
104758.1000061035 193944.7999992371 26.6700019836
104758.1100006104 193945.0999984741 26.6599998474
104758.1199951172 193945.4099998474 26.6900024414
104758.1999969482 193945.9599990845 29.1900024414
104758.1399993896 193945.7200012207 26.6700019836
104758.2100067139 193946.2799987793 29.1399993896
104758.2299957275 193946.5600013733 29.1000022888
104758.2400054932 193946.8899993896 29.0300025940
104758.1799926758 193946.8699989319 25.8100013733
104758.1900024414 193947.1699981689 25.7099990845
104758.2100067139 193947.4500007629 25.7000007629
104758.2500000000 193947.8800010681 26.7400016785
104758.2500000000 193948.1599998474 26.3800010681
104758.2500000000 193948.4000015259 25.6200027466
104758.2500000000 193948.6699981689 25.1900024414
104758.2700042725 193948.9599990845 25.0800018311
104758.2799987793 193949.2500000000 24.9799995422
104758.3099975586 193949.5999984741 25.4599990845
104758.3500061035 193950.0000000000 26.5300025940
104758.3600006104 193950.3400001526 26.5900001526
104758.3600006104 193950.5600013733 25.8199996948
104758.3600006104 193950.8300018311 25.1700019836
104758.3600006104 193951.0900001526 24.6800003052
104758.3999938965 193951.4799995422 25.7900009155
104758.4499969482 193951.6599998474 27.9200019836
104758.4499969482 193951.9000015259 27.3400001526
104758.4299926758 193952.0999984741 25.7800025940
104758.3999938965 193952.2500000000 23.7399997711
104758.4199981689 193952.5600013733 23.7900009155
104758.3399963379 193952.2900009155 20.5100002289
104758.2400054932 193952.2000007629 15.3999996185
104758.1799926758 193952.2400016785 12.1099996567
104758.1300048828 193952.3199996948 9.1999998093
104758.1399993896 193952.6199989319 9.0100002289
104758.1799926758 193953.0099983215 9.8900003433
104758.2100067139 193953.4000015259 10.5799999237
104758.5299987793 193954.7500000000 24.2900009155
104758.2100067139 193953.6300010681 9.6499996185
104758.3500061035 193954.4000015259 15.2700004578
104758.3099975586 193954.2799987793 13.6499996185
104758.2700042725 193954.1500015259 12.0299997330
104758.3600006104 193954.6899986267 15.2799997330
104758.3699951172 193954.9700012207 14.8000001907
104758.3800048828 193955.2700004578 14.7799997330
104758.3999938965 193955.5999984741 14.7899999619
104758.1100006104 193938.0099983215 28.1100006104
104758.1300048828 193938.3300018311 28.1200027466
104758.1399993896 193938.6500015259 28.1100006104
104758.1600036621 193938.9500007629 28.1100006104
104758.1399993896 193939.1100006104 26.6700019836
104758.1499938965 193939.4000015259 26.6599998474
104758.1699981689 193939.7099990845 26.6599998474
104758.1799926758 193940.0099983215 26.6599998474
104758.1999969482 193940.3300018311 26.6700019836
104758.2100067139 193940.6500015259 26.6599998474
104758.2299957275 193940.9500007629 26.6900024414
104758.2400054932 193941.2700004578 26.6800003052
104758.2599945068 193941.5800018311 26.6900024414
104758.2700042725 193941.8600006104 26.7000007629
104758.2799987793 193942.1599998474 26.6500015259
104758.3000030518 193942.4799995422 26.6800003052
104758.3200073242 193942.8100013733 26.6900024414
104758.3300018311 193943.0999984741 26.7000007629
104758.3500061035 193943.4300003052 26.6800003052
104758.3600006104 193943.7200012207 26.6900024414
104758.3800048828 193944.0200004578 26.6900024414
104758.3899993896 193944.3199996948 26.6800003052
104758.4100036621 193944.6500015259 26.6900024414
104758.4199981689 193944.9500007629 26.6800003052
104758.4400024414 193945.2700004578 26.6800003052
104758.4499969482 193945.5800018311 26.6900024414
104758.5200042725 193946.0999984741 28.8899993896
104758.5299987793 193946.3800010681 28.8400001526
104758.5399932861 193946.6699981689 28.7900009155
104758.4900054932 193946.7000007629 25.6900024414
104758.5599975586 193946.9900016785 28.7200012207
104758.5000000000 193947.0299987793 25.7099990845
104758.5200042725 193947.3199996948 25.6900024414
104758.5500030518 193947.7200012207 26.4300003052
104758.5700073242 193948.0200004578 26.6200027466
104758.5700073242 193948.2599983215 25.8500022888
104758.5599975586 193948.4900016785 25.1800003052
104758.5700073242 193948.7900009155 24.9300003052
104758.5899963379 193949.0900001526 24.7099990845
104758.6000061035 193949.4000015259 24.7500000000
104758.6300048828 193949.7900009155 25.5800018311
104758.6699981689 193950.1800003052 26.5699996948
104758.6900024414 193950.4599990845 26.5900001526
104758.6900024414 193950.7200012207 25.9400024414
104758.6900024414 193951.0000000000 25.5000000000
104758.6900024414 193951.2700004578 24.8700027466
104758.6900024414 193951.5099983215 24.2800025940
104758.7299957275 193951.6300010681 25.7400016785
104758.7400054932 193951.9500007629 25.7500000000
104758.6999969482 193951.8199996948 24.0799999237
104758.6999969482 193952.0299987793 23.0699996948
104758.6999969482 193952.3199996948 22.8099994659
104758.5700073242 193952.0800018311 16.3199996948
104758.5000000000 193952.0999984741 12.3400001526
104758.4400024414 193952.1699981689 9.1700000763
104758.4499969482 193952.4700012207 8.9700002670
104758.4900054932 193952.5900001526 10.4700002670
104758.5099945068 193952.9399986267 10.7399997711
104758.4700012207 193952.8199996948 9.2600002289
104758.5200042725 193953.2299995422 10.5200004578
104758.5099945068 193953.4599990845 9.6599998474
104758.5500030518 193953.8499984741 10.6199998856
104758.5099945068 193953.7299995422 9.0100002289
104758.6799926758 193954.5699996948 15.8000001907
104758.6799926758 193954.8400001526 15.0100002289
104758.6900024414 193955.1300010681 14.8900003433
104758.0000000000 193933.9799995422 15.9899997711
104758.0099945068 193934.2799987793 15.9799995422
104758.3999938965 193937.5999984741 28.1000022888
104758.4100036621 193937.8899993896 28.1200027466
104758.4299926758 193938.2200012207 28.1300010681
104758.4400024414 193938.5000000000 28.0900001526
104758.4600067139 193938.8100013733 28.1000022888
104758.4299926758 193938.6800003052 26.9400024414
104758.4400024414 193938.9399986267 26.6700019836
104758.4499969482 193939.2700004578 26.6599998474
104758.4700012207 193939.5800018311 26.6599998474
104758.4799957275 193939.8899993896 26.6599998474
104758.5000000000 193940.2000007629 26.6599998474
104758.5099945068 193940.5099983215 26.6700019836
104758.5299987793 193940.7999992371 26.6800003052
104758.5399932861 193941.0999984741 26.6700019836
104758.5599975586 193941.4199981689 26.6800003052
104758.5700073242 193941.7599983215 26.6700019836
104758.5899963379 193942.0400009155 26.6700019836
104758.6100006104 193942.3699989319 26.6800003052
104758.6199951172 193942.6599998474 26.6900024414
104758.6399993896 193942.9700012207 26.6900024414
104758.6499938965 193943.2599983215 26.6900024414
104758.6699981689 193943.5900001526 26.6900024414
104758.6799926758 193943.9000015259 26.6900024414
104758.6999969482 193944.2099990845 26.6900024414
104758.7100067139 193944.5200004578 26.6800003052
104758.7299957275 193944.8300018311 26.6700019836
104758.7400054932 193945.1100006104 26.6599998474
104758.7500000000 193945.4199981689 26.6700019836
104758.7700042725 193945.7299995422 26.7000007629
104758.8300018311 193946.2500000000 28.5800018311
104758.8399963379 193946.5299987793 28.5600013733
104758.8600006104 193946.8499984741 28.4900016785
104758.8099975586 193946.8800010681 25.6800003052
104758.8200073242 193947.1899986267 25.6900024414
104758.8399963379 193947.4900016785 25.7999992371
104758.8800048828 193947.9000015259 26.7400016785
104758.8699951172 193948.1399993896 26.0000000000
104758.8699951172 193948.3899993896 25.3100013733
104758.8699951172 193948.6500015259 24.7099990845
104758.8899993896 193948.9500007629 24.6700019836
104758.8999938965 193949.2400016785 24.6500015259
104758.9199981689 193949.5499992371 24.7099990845
104758.9600067139 193949.9500007629 25.6500015259
104759.0000000000 193950.4000015259 27.0800018311
104759.0099945068 193950.6699981689 26.8100013733
104759.0099945068 193950.9300003052 26.0900001526
104759.0099945068 193951.1699981689 25.4400024414
104759.0099945068 193951.4199981689 24.7600021362
104759.0099945068 193951.6500015259 24.0200004578
104759.0000000000 193951.9000015259 23.2299995422
104758.7500000000 193951.0000000000 12.2600002289
104758.7700042725 193951.3199996948 12.1800003052
104759.0000000000 193952.1699981689 22.5400009155
104758.7899932861 193951.6500015259 12.3199996948
104758.7299957275 193951.7200012207 9.1999998093
104758.7899932861 193951.9300003052 11.7899999619
104758.7400054932 193952.0200004578 8.9700002670
104758.7500000000 193952.3100013733 8.9499998093
104758.7700042725 193952.6300010681 8.9700002670
104758.7899932861 193952.7200012207 10.0399999619
104758.8399963379 193953.4099998474 10.4200000763
104758.8000030518 193953.0200004578 9.6599998474
104758.7899932861 193952.9799995422 9.1000003815
104758.8300018311 193953.6399993896 9.5100002289
104759.0000000000 193954.4799995422 16.2700004578
104759.0000000000 193954.7299995422 15.5699996948
104758.7299957275 193937.4700012207 28.1100006104
104758.7500000000 193937.7500000000 28.1200027466
104758.7599945068 193938.0600013733 28.1200027466
104758.7799987793 193938.3699989319 28.1000022888
104758.7700042725 193938.5900001526 27.1399993896
104758.7700042725 193938.8300018311 26.6800003052
104758.7899932861 193939.1699981689 26.7700004578
104758.8099975586 193939.4599990845 26.7700004578
104758.8200073242 193939.7599983215 26.7400016785
104758.8399963379 193940.0499992371 26.7099990845
104758.8500061035 193940.3800010681 26.6700019836
104758.8699951172 193940.7000007629 26.6800003052
104758.8800048828 193941.0000000000 26.6800003052
104758.8999938965 193941.3100013733 26.6700019836
104758.9100036621 193941.6199989319 26.6900024414
104758.9299926758 193941.9099998474 26.6900024414
104758.9400024414 193942.2099990845 26.6800003052
104758.9600067139 193942.5299987793 26.7099990845
104758.9700012207 193942.8600006104 26.7000007629
104758.9900054932 193943.1500015259 26.6900024414
104759.0000000000 193943.4799995422 26.6800003052
104759.0200042725 193943.7700004578 26.6900024414
104759.0299987793 193944.0699996948 26.7000007629
104759.0399932861 193944.3600006104 26.6800003052
104759.0599975586 193944.6899986267 26.6700019836
104759.0800018311 193945.0099983215 26.7000007629
104759.0899963379 193945.3100013733 26.6700019836
104759.1100006104 193945.6199989319 26.6800003052
104759.1600036621 193946.0900001526 28.2999992371
104759.1199951172 193945.9300003052 26.6700019836
104759.1699981689 193946.3699989319 28.2500000000
104759.1900024414 193946.6699981689 28.2099990845
104759.1999969482 193946.9700012207 28.1599998474
104759.1600036621 193947.0600013733 25.6700019836
104759.1699981689 193947.3800010681 25.7600021362
104759.2100067139 193947.7900009155 26.8300018311
104759.2100067139 193948.0299987793 26.2000007629
104759.2100067139 193948.2599983215 25.5200004578
104759.2100067139 193948.5000000000 24.8199996948
104759.2500000000 193948.9000015259 25.6900024414
104759.2200012207 193948.8100013733 24.6399993896
104759.2599945068 193949.2200012207 25.6399993896
104759.2400054932 193949.1300010681 24.6700019836
104759.2500000000 193949.4199981689 24.5900001526
104759.2799987793 193949.8100013733 25.2800025940
104759.3200073242 193950.1800003052 26.2000007629
104759.3500061035 193950.5600013733 27.0600013733
104759.3600006104 193950.8100013733 26.6800003052
104759.3600006104 193951.0699996948 25.8899993896
104759.0599975586 193950.2599983215 12.4499998093
104759.3600006104 193951.3300018311 25.1700019836
104759.0700073242 193950.5600013733 12.2799997330
104759.0899963379 193950.8699989319 12.0699996948
104759.1000061035 193951.1599998474 11.8599996567
104759.0500030518 193951.2400016785 9.1700000763
104759.0599975586 193951.5400009155 8.9499998093
104759.0800018311 193951.8699989319 8.9300003052
104759.1199951172 193952.3100013733 10.2899999619
104759.1000061035 193952.2200012207 9.0699996948
104759.1399993896 193952.6199989319 10.4600000381
104759.1300048828 193952.8699989319 9.3000001907
104759.1499938965 193953.2099990845 9.6199998856
104759.1799926758 193953.5499992371 10.0500001907
104759.1600036621 193953.4700012207 9.0600004196
104759.0700073242 193937.2999992371 28.1100006104
104759.0899963379 193937.6300010681 28.1100006104
104759.1000061035 193937.9300003052 28.1200027466
104759.1199951172 193938.2500000000 28.0900001526
104759.0800018311 193938.3300018311 26.2600021362
104759.1000061035 193938.6500015259 26.3300018311
104759.1000061035 193938.8899993896 25.9000015259
104759.1199951172 193939.2400016785 26.0699996948
104759.1399993896 193939.5600013733 26.2099990845
104759.1600036621 193939.8899993896 26.3500022888
104759.1799926758 193940.2200012207 26.5100021362
104759.1999969482 193940.5400009155 26.6500015259
104759.2200012207 193940.8400001526 26.7099990845
104759.2299957275 193941.1500015259 26.7700004578
104759.2500000000 193941.4599990845 26.7900009155
104759.2599945068 193941.7900009155 26.7500000000
104759.2799987793 193942.0800018311 26.6800003052
104759.2899932861 193942.4099998474 26.7000007629
104759.3099975586 193942.7000007629 26.7700004578
104759.3200073242 193943.0000000000 26.6900024414
104759.3300018311 193943.2999992371 26.6800003052
104759.3500061035 193943.6199989319 26.7000007629
104759.3699951172 193943.9399986267 26.6900024414
104759.3800048828 193944.2299995422 26.6900024414
104759.3999938965 193944.5499992371 26.6700019836
104759.4100036621 193944.8600006104 26.6700019836
104759.4199981689 193945.1500015259 26.6800003052
104759.4400024414 193945.4500007629 26.6700019836
